# .PCD v0.7 - Point Cloud Data file format
VERSION 0.7
FIELDS x y z rgb
SIZE 4 4 4 4
TYPE F F F F
COUNT 1 1 1 1
WIDTH 1024
HEIGHT 1
VIEWPOINT 0 0 0 1 0 0 0
POINTS 1024
DATA ascii
0.15382294 -0.31575635 3.6977124 1.1874163e-38
0.19465233 -0.31545594 3.7213135 1.3269707e-38
0.096259542 -0.31584281 3.6800125 1.059929e-38
0.10102031 -0.31580374 3.6828208 8.1071226e-39
0.1587806 -0.31557736 3.7026215 7.5427636e-39
0.17567134 -0.31546384 3.7133648 1.0222919e-38
0.18597011 -0.31541431 3.7178669 1.0415252e-38
0.18650033 -0.31541082 3.7177396 1.0228337e-38
0.097879425 -0.3156631 3.6812537 1.0875155e-38
0.18125544 -0.315276 3.7159047 7.2788081e-39
0.18632048 -0.31524116 3.7182865 7.7387002e-39
0.18880968 -0.31524673 3.7187974 8.0127676e-39
0.19091658 -0.3152329 3.7193694 8.657058e-39
0.19198959 -0.31521285 3.7206006 8.2004126e-39
0.19750431 -0.31519479 3.7221317 6.3539595e-39
0.15856087 -0.31543842 3.7026465 6.6229695e-39
0.17546964 -0.31517145 3.7135544 7.4599455e-39
0.17946257 -0.31515911 3.7152615 8.7539381e-39
0.1857193 -0.31514689 3.7177057 1.1522324e-38
0.095470265 -0.31541547 3.6801751 1.0784401e-38
0.095470265 -0.31541547 3.6801751 1.0784401e-38
0.1678544 -0.31515554 3.7063866 1.0675976e-38
0.17626123 -0.31505758 3.7138612 1.1242852e-38
0.17721885 -0.31496939 3.7143962 1.1703833e-38
0.19753587 -0.31488454 3.7222252 1.2437066e-38
0.10969453 -0.31512409 3.6864347 5.8951463e-39
0.18001357 -0.31473312 3.7150099 1.2439227e-38
0.19222398 -0.31461057 3.7201037 1.0315126e-38
0.11579479 -0.31492758 3.6889586 6.079525e-39
0.17728584 -0.31461197 3.7140791 8.657058e-39
0.18089813 -0.31465074 3.7154627 9.6701183e-39
0.10623217 -0.3148903 3.6848507 8.6591949e-39
0.11010981 -0.31484497 3.6864386 6.9085752e-39
0.11236145 -0.31486428 3.6873221 6.2635547e-39
0.11429066 -0.31485263 3.688242 5.8032982e-39
0.11439916 -0.3148447 3.688591 8.2925858e-39
0.18792368 -0.31448954 3.7182429 9.0258279e-39
0.191644 -0.31452277 3.719727 1.0775024e-38
0.19264515 -0.31450516 3.7202373 1.308171e-38
0.19606017 -0.31445205 3.7216825 1.0130015e-38
0.10823892 -0.31477183 3.6858132 4.9731788e-39
0.11421133 -0.31477469 3.6879795 8.018164e-39
0.17389391 -0.31465426 3.7061799 5.1543289e-39
0.17560716 -0.3144747 3.7133071 8.1031527e-39
0.19587237 -0.31435367 3.72159 1.3634163e-38
0.19633059 -0.31441405 3.7216985 9.4860858e-39
0.10421938 -0.31471899 3.6844523 5.157217e-39
0.19539319 -0.31433967 3.7212045 9.76303e-39
0.14682344 -0.31450212 3.6995041 5.6131392e-39
0.17541774 -0.31430393 3.7132466 1.0962659e-38
0.19495812 -0.3142356 3.7211046 1.2344506e-38
0.09549354 -0.31463885 3.6803973 6.7249098e-39
0.099952929 -0.31461042 3.6822326 5.804757e-39
0.14741993 -0.3140111 3.7133782 6.0719594e-39
0.17769367 -0.31426224 3.7140403 1.1701309e-38
0.18947385 -0.31413704 3.7188942 8.4726471e-39
0.17442399 -0.31436655 3.7064629 8.6487525e-39
0.17488837 -0.31414577 3.7131007 1.0594593e-38
0.18639302 -0.31410438 3.7175937 1.0870095e-38
0.1932537 -0.31409177 3.7203979 1.1884248e-38
0.1964054 -0.31406483 3.7218635 9.3924552e-39
0.19676974 -0.31409264 3.7218454 1.2251589e-38
0.096347407 -0.3144803 3.6803267 1.1152824e-38
0.095105812 -0.31437659 3.6805437 7.2784423e-39
0.097340673 -0.31440079 3.6807828 7.3720771e-39
0.11870607 -0.31446692 3.6815689 5.805829e-39
0.15664637 -0.3142857 3.6989043 7.2715872e-39
0.161265 -0.31419274 3.7037547 8.5594519e-39
0.18670987 -0.31394815 3.7177248 8.1960616e-39
0.10786185 -0.31426084 3.6850941 6.5441227e-39
0.10858706 -0.3142443 3.6858559 5.4356087e-39
0.17824177 -0.31393906 3.7146332 1.1612356e-38
0.19598016 -0.3137604 3.7216554 1.2714371e-38
0.10086469 -0.31417197 3.6826904 1.0232311e-38
0.096186288 -0.31412646 3.6804979 7.2788038e-39
0.096571267 -0.31414315 3.6808872 7.18336e-39
0.10783036 -0.31407234 3.6854475 5.438487e-39
0.12512404 -0.31423074 3.6859517 7.6356837e-39
0.17743577 -0.31373557 3.7141089 9.3017029e-39
0.19721135 -0.31367901 3.7219334 1.1977527e-38
0.097018674 -0.31404206 3.6807852 1.1702388e-38
0.19384015 -0.31356391 3.7208056 1.1792777e-38
0.15303013 -0.31393516 3.6969547 7.271227e-39
0.19681188 -0.3134993 3.7219279 1.2251952e-38
0.1064457 -0.31385481 3.6848466 1.133396e-38
0.12498221 -0.31395602 3.6859488 1.2430225e-38
0.19478925 -0.31322142 3.7211797 1.0316208e-38
0.18029545 -0.31314972 3.7152224 1.1794219e-38
0.18587098 -0.31313565 3.7174692 8.5648483e-39
0.10524742 -0.31344524 3.6846876 9.5840379e-39
0.10231287 -0.31340587 3.6828654 4.9750243e-39
0.1023912 -0.31337014 3.6830528 1.2538688e-38
0.17955701 -0.31302103 3.7148376 1.2253757e-38
0.18984625 -0.31294802 3.7191553 1.151583e-38
0.17648301 -0.31295124 3.7135472 9.3009784e-39
0.17840716 -0.31295717 3.7145011 8.1064051e-39
0.18893822 -0.31284401 3.7187369 9.6712001e-39
0.10874063 -0.31314057 3.6856358 4.2377746e-39
0.11342788 -0.31316403 3.6880755 7.5542977e-39
0.1879648 -0.312796 3.7183702 1.2162283e-38
0.19133492 -0.3128038 3.7195742 9.4860815e-39
0.196328 -0.31277531 3.7217121 1.3358661e-38
0.19745822 -0.31279162 3.7221086 1.3266825e-38
0.096622162 -0.31318039 3.6804633 1.1333965e-38
0.17881273 -0.31278828 3.7144363 1.0870103e-38
0.17804526 -0.31266505 3.7143464 8.1975161e-39
0.18984173 -0.31263947 3.7192104 8.7492354e-39
0.19359176 -0.31262329 3.7205675 1.3633809e-38
0.11337883 -0.31291789 3.6878972 3.4991277e-39
0.12200434 -0.31315887 3.6846905 7.8247623e-39
0.19657686 -0.31254265 3.7216787 1.3082071e-38
0.18323565 -0.31253907 3.7162576 1.0778994e-38
0.18351589 -0.31253898 3.7164001 1.1887138e-38
0.1133341 -0.31276324 3.6874859 3.9611891e-39
0.12531397 -0.31300154 3.6857936 1.0860018e-38
0.1773082 -0.31242305 3.7140331 8.7492508e-39
0.097186998 -0.31278574 3.6804445 1.1148488e-38
0.17789111 -0.31234974 3.714339 1.1054497e-38
0.1885871 -0.31231222 3.7187665 1.1055571e-38
0.18902968 -0.31231064 3.7188056 8.6570369e-39
0.11314281 -0.31257674 3.687722 7.9245208e-39
0.15900001 -0.3127006 3.6991665 1.4916632e-38
0.17844944 -0.31229192 3.7146785 7.6450556e-39
0.18026972 -0.31224465 3.7155747 1.1425072e-38
0.19250995 -0.31224835 3.7200718 1.0407685e-38
0.096387915 -0.31257913 3.6810536 9.4878948e-39
0.19011697 -0.3121506 3.7196724 8.7485193e-39
0.19041756 -0.31207535 3.7194335 8.6581258e-39
0.19082576 -0.31203502 3.7195072 1.0502753e-38
0.095574953 -0.31248447 3.6799569 7.7390603e-39
0.098969139 -0.31243196 3.682343 1.1613083e-38
0.10794338 -0.31239334 3.685447 6.6316254e-39
0.18325616 -0.31198853 3.7166939 5.6189112e-39
0.1881313 -0.31202176 3.7183485 6.7230895e-39
0.1133371 -0.31229311 3.6877112 8.5677266e-39
0.17631058 -0.31197551 3.7137179 8.7488865e-39
0.096615143 -0.31227997 3.6806631 1.1333602e-38
0.10106394 -0.31227121 3.6819863 1.1704194e-38
0.17816637 -0.31183258 3.7145524 1.1152098e-38
0.18868649 -0.31181666 3.7187026 6.2628442e-39
0.19345054 -0.31181118 3.7204952 6.9996904e-39
0.19679692 -0.31181148 3.7217481 8.1964357e-39
0.096132912 -0.31224209 3.6801722 1.1521606e-38
0.096978016 -0.31221375 3.6808224 9.1194724e-39
0.10724173 -0.31210008 3.6860819 8.7532053e-39
0.10819998 -0.312168 3.6857164 7.9248851e-39
0.143837 -0.31237373 3.692431 7.7264416e-39
0.18907258 -0.31173038 3.7189097 5.8011472e-39
0.17209964 -0.31209579 3.704078 1.399467e-38
0.1783976 -0.3116965 3.7144768 1.1521238e-38
0.17954321 -0.31169191 3.7149279 1.2628306e-38
0.17680278 -0.31166604 3.7138703 1.1795665e-38
0.18063864 -0.31164843 3.7150452 9.5858582e-39
0.19057381 -0.31160137 3.7196217 6.5416003e-39
0.098815084 -0.31187412 3.6815 1.1611644e-38
0.1075478 -0.31179658 3.6853449 8.84684e-39
0.17952725 -0.31146282 3.7148364 9.2102303e-39
0.18855213 -0.31136221 3.7186477 1.0409487e-38
0.19272465 -0.31132993 3.7199628 1.2252311e-38
0.095379986 -0.31175059 3.6801274 8.9376119e-39
0.096888267 -0.31173176 3.6807175 1.0412013e-38
0.17800169 -0.31132972 3.7141232 1.3543415e-38
0.17844951 -0.31126973 3.7146218 9.3027819e-39
0.096119009 -0.31167847 3.6800747 1.0968793e-38
0.097365104 -0.31167009 3.6807692 1.0966265e-38
0.10146036 -0.31160811 3.6827168 6.6363365e-39
0.17761458 -0.31124777 3.7138622 1.262037e-38
0.18206292 -0.31122613 3.715533 4.7139961e-39
0.18604085 -0.31117389 3.717546 1.2253751e-38
0.10538842 -0.31193998 3.6763408 1.1149573e-38
0.17960334 -0.31115744 3.7148392 1.2989878e-38
0.19697076 -0.31111547 3.7219024 9.3938915e-39
0.094864503 -0.31150219 3.6798191 1.0228342e-38
0.096282102 -0.31150001 3.6803861 7.3738834e-39
0.18052112 -0.31107572 3.7151754 1.1243209e-38
0.099568695 -0.31140575 3.6817937 6.1738996e-39
0.18620676 -0.31094626 3.717608 9.945622e-39
0.19261339 -0.31096661 3.7200599 9.1165732e-39
0.18721043 -0.31086338 3.7179718 9.6701155e-39
0.18454145 -0.31091079 3.7167723 1.0873353e-38
0.19069736 -0.31079435 3.7193561 9.9477884e-39
0.15558174 -0.31136218 3.6964948 1.2425545e-38
0.17872322 -0.31076264 3.7143846 1.1237438e-38
0.1949323 -0.31055969 3.7208786 9.0272656e-39
0.12667589 -0.31134614 3.6845074 1.159722e-38
0.16035718 -0.31119815 3.6982892 1.4180147e-38
0.17155223 -0.31111765 3.7031207 1.2983758e-38
0.12142335 -0.31130511 3.6821814 1.3071986e-38
0.17138948 -0.31108633 3.7029252 8.4672507e-39
0.17848933 -0.31055012 3.714484 8.1038772e-39
0.12692507 -0.31119105 3.6849508 1.3536571e-38
0.1779283 -0.31042248 3.7141299 6.91075e-39
0.17826958 -0.31046295 3.7143409 1.143121e-38
0.17961457 -0.3103945 3.7149522 6.8156565e-39
0.18020961 -0.31042531 3.7153621 6.9085738e-39
0.18781 -0.31034988 3.718071 9.4864431e-39
0.1939403 -0.31027979 3.7205191 1.1424714e-38
0.12704442 -0.31106931 3.6844161 8.8353059e-39
0.18048848 -0.31028304 3.7154989 1.0231939e-38
0.1895158 -0.31024414 3.7186356 9.9470597e-39
0.16669874 -0.3057442 3.80971 1.2346674e-38
0.10419584 -0.31027943 3.683974 6.544494e-39
0.18771724 -0.30998734 3.7179894 1.1332158e-38
0.18642811 -0.30988744 3.717531 1.21612e-38
0.17209034 -0.31047425 3.7031057 7.8261889e-39
0.1796174 -0.30987793 3.7149229 8.6584999e-39
0.17993866 -0.30988914 3.7149625 7.5535873e-39
0.19063425 -0.30971766 3.7193816 9.118385e-39
0.1071523 -0.31006736 3.6849272 8.4726499e-39
0.1096491 -0.31008992 3.6858211 8.0170723e-39
0.19392291 -0.30954674 3.7203374 1.0132175e-38
0.10505316 -0.30995238 3.6841512 5.2533741e-39
0.19138749 -0.30947948 3.7195623 1.2345592e-38
0.10152367 -0.30986142 3.6822624 3.0442873e-39
0.10466303 -0.30981332 3.6842279 8.0185255e-39
0.13850458 -0.31027412 3.6893828 1.4089389e-38
0.19356167 -0.30938682 3.7203879 9.9467052e-39
0.1783067 -0.31083742 3.6928759 1.0219331e-38
0.14993253 -0.31013364 3.6915901 6.1764486e-39
0.10455555 -0.30965498 3.6826749 1.4389448e-38
0.10655304 -0.30949071 3.6843462 7.3709967e-39
0.17706384 -0.30993411 3.702853 1.1323517e-38
0.097689137 -0.30951324 3.6805072 1.1335053e-38
0.18463236 -0.30906039 3.7168119 1.1516194e-38
0.1897544 -0.30903682 3.7189507 1.1884608e-38
0.18036075 -0.30894375 3.7153108 1.1705995e-38
0.18093389 -0.30898181 3.7153265 1.1790972e-38
0.18418743 -0.30900198 3.7161653 7.1132348e-39
0.10585514 -0.30929095 3.684289 8.0145668e-39
0.17762402 -0.30967319 3.7032418 6.165241e-39
0.10224536 -0.30920708 3.6826098 3.1354067e-39
0.17135604 -0.3096709 3.7006125 6.7191379e-39
0.16848077 -0.30968803 3.6995385 7.1775979e-39
0.18912691 -0.30867425 3.7185919 9.3942489e-39
0.18109718 -0.3086521 3.715483 7.7347163e-39
0.17803186 -0.30932847 3.7033396 7.3623423e-39
0.17967252 -0.30851072 3.7146263 9.2091457e-39
0.18012378 -0.30849549 3.7150724 9.0265523e-39
0.098861814 -0.30884376 3.6814668 1.161236e-38
0.16669233 -0.3093099 3.6987183 8.8338766e-39
0.1958894 -0.30835226 3.7211959 1.2529981e-38
0.18559186 -0.30831477 3.7171917 8.4726485e-39
0.16681951 -0.30930367 3.6988075 7.5463734e-39
0.14179128 -0.30933049 3.6881571 7.0857582e-39
0.15879737 -0.30920032 3.6954663 1.1509706e-38
0.18137842 -0.30819735 3.715842 8.0123962e-39
0.18463162 -0.30824861 3.7168052 8.4719254e-39
0.098363534 -0.30865318 3.6807573 8.7546696e-39
0.14148845 -0.30936968 3.6882596 7.0861113e-39
0.17100519 -0.30905232 3.7006218 1.2245834e-38
0.18112604 -0.30810514 3.7155545 9.7680817e-39
0.186975 -0.30811074 3.7177691 1.0961935e-38
0.18986474 -0.30814165 3.7189789 9.4875291e-39
0.12738095 -0.30923337 3.6821418 1.0312598e-38
0.17429751 -0.30896679 3.7018433 7.4527372e-39
0.18349145 -0.30806997 3.7164767 9.857385e-39
0.098149404 -0.30846548 3.6808493 1.0967355e-38
0.15573068 -0.30898991 3.6941748 6.8131328e-39
0.17928606 -0.3080318 3.7146735 7.3702834e-39
0.18530701 -0.30796731 3.7172298 8.1042317e-39
0.19318074 -0.30792207 3.720448 1.308207e-38
0.18285488 -0.30785811 3.7168145 1.0689319e-38
0.19362251 -0.30787414 3.7204106 6.8145789e-39
0.12648252 -0.30906972 3.6815913 5.1539533e-39
0.13218953 -0.30899808 3.6843309 5.6153042e-39
0.17410332 -0.30875003 3.7016771 1.1414271e-38
0.16837944 -0.30873421 3.6993086 1.2615698e-38
0.17166817 -0.30871668 3.7005279 9.8537809e-39
0.17371008 -0.30867654 3.7015569 1.1877046e-38
0.1788158 -0.30778819 3.7144151 5.8029465e-39
0.18304722 -0.30775511 3.7161462 8.0156612e-39
0.19085808 -0.3076556 3.7196825 7.0940539e-39
0.1935322 -0.30771428 3.7205009 1.0507096e-38
0.096722856 -0.30814004 3.6801066 8.201486e-39
0.10539468 -0.30805516 3.6840506 7.8287252e-39
0.13904144 -0.30879369 3.6872394 1.3076678e-38
0.15300722 -0.30951488 3.6873224 1.2430224e-38
0.16230269 -0.30866149 3.6968265 8.6577712e-39
0.18208234 -0.30768406 3.7156293 1.2350647e-38
0.18482535 -0.30765963 3.7170334 1.115138e-38
0.18603748 -0.30765352 3.7177422 9.119478e-39
0.096366711 -0.30808914 3.6800399 1.087371e-38
0.17155065 -0.30870959 3.7006221 9.8545011e-39
0.130137 -0.30880243 3.6835384 1.077646e-38
0.16385813 -0.30859438 3.6973658 9.8498278e-39
0.17169747 -0.30856815 3.7007253 8.5626833e-39
0.096455894 -0.30797994 3.6804931 7.9249061e-39
0.14474432 -0.30863401 3.6895216 9.8491145e-39
0.17362732 -0.30847445 3.7016342 5.9855245e-39
0.14211836 -0.30656233 3.7121994 6.4439859e-39
0.16479169 -0.30604401 3.7264786 1.2251596e-38
0.17923385 -0.30744323 3.7145724 1.0500598e-38
0.12896861 -0.30860198 3.6828635 7.6403697e-39
0.097897522 -0.30781257 3.680321 8.9404972e-39
0.10506977 -0.30768341 3.6840336 4.7005604e-39
0.10984137 -0.30767599 3.6848752 4.3292499e-39
0.1562134 -0.30828568 3.6943595 1.2339476e-38
0.17853695 -0.30722892 3.7143648 1.1245018e-38
0.1787806 -0.3071641 3.7142918 9.2127555e-39
0.18924913 -0.30715954 3.7184498 1.2069723e-38
0.10720613 -0.30758199 3.684613 4.7909484e-39
0.14044695 -0.30829591 3.6878517 1.3351827e-38
0.19489446 -0.30703658 3.7210293 1.2347394e-38
0.097674035 -0.30750826 3.6806731 1.1613445e-38
0.10837128 -0.30740824 3.6852181 9.2159855e-39
0.12856874 -0.30827901 3.6827998 1.0126049e-38
0.17774971 -0.30806723 3.7027102 1.2244755e-38
0.10427714 -0.3073425 3.6836791 4.4207281e-39
0.10759262 -0.30733165 3.6852813 5.8058248e-39
0.18902266 -0.30692059 3.7184215 8.748878e-39
0.18975672 -0.30693308 3.7187259 8.1964231e-39
0.17853898 -0.30687174 3.7143283 1.0599283e-38
0.10382717 -0.30725124 3.6828835 5.7136347e-39
0.12856942 -0.30805224 3.6827986 1.0585222e-38
0.17795202 -0.30684015 3.7139006 1.0323412e-38
0.18933718 -0.30674893 3.718708 9.6715518e-39
0.16410902 -0.30778849 3.6978321 7.9173181e-39
0.1681477 -0.30766183 3.6993794 1.0123172e-38
0.16990548 -0.30764502 3.6999638 7.3608933e-39
0.17869845 -0.30664167 3.7142863 7.8308944e-39
0.17940331 -0.30665967 3.7143905 1.3176802e-38
0.19503255 -0.30657381 3.7208393 9.8566703e-39
0.11008726 -0.30695871 3.6857913 5.9869804e-39
0.16039641 -0.30766588 3.6961594 8.0051907e-39
0.10389911 -0.30687502 3.6838465 9.9557225e-39
0.12466634 -0.30782557 3.6812983 6.1677507e-39
0.16132012 -0.30661419 3.7072449 7.1765119e-39
0.15255961 -0.30763572 3.6928556 7.9129937e-39
0.15831171 -0.30752498 3.6950877 1.30756e-38
0.17373213 -0.30749038 3.7020154 1.3169958e-38
0.17718501 -0.30747515 3.7030287 1.1782691e-38
0.18682271 -0.306456 3.7174535 1.197825e-38
0.18805704 -0.30646777 3.7179768 9.9467024e-39
0.16210164 -0.30758223 3.6967981 5.8879254e-39
0.16363704 -0.3075093 3.6973555 1.2429499e-38
0.14800854 -0.30750361 3.6908369 1.1875246e-38
0.15284371 -0.30752575 3.6925704 1.1414627e-38
0.16933922 -0.30742663 3.6997852 1.1691212e-38
0.1076173 -0.30660805 3.6853652 7.0014869e-39
0.12432614 -0.30759868 3.6809371 1.0310077e-38
0.15065996 -0.30744708 3.6919198 1.3260353e-38
0.19670807 -0.3061631 3.7214103 1.2160838e-38
0.11032593 -0.30654237 3.6857936 3.9608276e-39
0.13124214 -0.3074784 3.6837246 1.1046198e-38
0.13917087 -0.30744645 3.6869924 1.1229515e-38
0.15508926 -0.3073664 3.6938102 9.5710815e-39
0.16007027 -0.30645019 3.7041328 7.9140825e-39
0.16560851 -0.30725923 3.6981854 9.9434682e-39
0.16635923 -0.30724615 3.6987264 1.1047299e-38
0.1787117 -0.30619267 3.7139933 6.5401528e-39
0.1790496 -0.30610555 3.7146616 9.8537809e-39
0.18706352 -0.30616361 3.7177198 6.2617624e-39
0.1970517 -0.30609998 3.7215819 9.3942489e-39
0.15784024 -0.30724239 3.6949975 1.0496292e-38
0.13703731 -0.30729759 3.6862795 8.7424012e-39
0.14305232 -0.30707979 3.6889389 1.2893012e-38
0.1788481 -0.30577794 3.7142692 1.0963018e-38
0.1230856 -0.3028712 3.7207088 1.1232776e-38
0.14811316 -0.30691984 3.6909795 1.344402e-38
0.19242053 -0.30560285 3.7197523 9.4875263e-39
0.17869279 -0.30561376 3.7142584 7.0929693e-39
0.1893236 -0.30546772 3.7184081 1.3085681e-38
0.19244201 -0.30536684 3.7196925 1.2162283e-38
0.16334629 -0.30652139 3.6972976 6.7191322e-39
0.16846198 -0.30645466 3.6993372 1.0307566e-38
0.17626826 -0.30645046 3.7027197 8.9264296e-39
0.15277579 -0.30645153 3.6929102 1.1229528e-38
0.17885014 -0.30516812 3.7143764 6.7231021e-39
0.17985955 -0.30508935 3.7145081 5.986256e-39
0.18026499 -0.30509654 3.7147005 1.1516187e-38
0.18189691 -0.30509526 3.7157505 1.2160472e-38
0.18691339 -0.30504787 3.7174921 8.9368861e-39
0.18085615 -0.30505636 3.7149003 7.5503335e-39
0.19657779 -0.30496368 3.7213707 6.904964e-39
0.09609095 -0.30547041 3.6798196 1.0691481e-38
0.12458587 -0.30644545 3.6808581 7.6403669e-39
0.179382 -0.30497062 3.7142725 9.9528401e-39
0.18055883 -0.30496901 3.7150226 6.5394255e-39
0.18184027 -0.30494425 3.7154846 8.7499669e-39
0.19124722 -0.30489472 3.7191939 6.9993247e-39
0.17835771 -0.30483517 3.7139587 1.1614875e-38
0.19266784 -0.30482441 3.7199047 6.3554e-39
0.1957313 -0.30480117 3.7210598 7.2744766e-39
0.18131661 -0.30478555 3.7153642 7.6465046e-39
0.18645269 -0.30461821 3.7173283 7.7383345e-39
0.18715213 -0.30457613 3.7177837 6.449046e-39
0.17101358 -0.30579293 3.7003493 1.1322427e-38
0.18161683 -0.30454323 3.7155545 7.5543117e-39
0.19636989 -0.30450514 3.721174 1.2713649e-38
0.18204999 -0.30449599 3.7155428 7.7401519e-39
0.18386595 -0.30447429 3.7162502 1.023015e-38
0.18840247 -0.30438569 3.7182033 7.6479465e-39
0.12602112 -0.30595937 3.6813815 8.8367479e-39
0.16351528 -0.30884644 3.6683059 8.5637623e-39
0.17332153 -0.30564326 3.7011948 1.132387e-38
0.12676121 -0.30583787 3.6821511 7.3652149e-39
0.17967708 -0.30431363 3.7145286 1.1057025e-38
0.18373117 -0.30408508 3.7160256 1.1054863e-38
0.097134627 -0.30474135 3.6802313 7.0072644e-39
0.18217464 -0.30420622 3.7157226 1.2902746e-38
0.18384592 -0.30421492 3.716378 1.3547391e-38
0.1250944 -0.30567318 3.6811192 7.1826257e-39
0.10845035 -0.30449575 3.685358 9.4911332e-39
0.18138446 -0.30402824 3.7154965 1.1154623e-38
0.19014923 -0.30401552 3.7187786 9.3024078e-39
0.19549285 -0.30403319 3.720856 9.6686679e-39
0.18119727 -0.30401146 3.7150545 7.6454326e-39
0.18189847 -0.30394679 3.7154472 8.1071282e-39
0.18356928 -0.30398428 3.716022 1.2531787e-38
0.19194902 -0.30392918 3.7194502 1.1699134e-38
0.19214883 -0.30393979 3.7195187 1.0038172e-38
0.1802699 -0.30392197 3.7146499 1.2349559e-38
0.10312142 -0.30417156 3.6832197 1.0969519e-38
0.18422444 -0.30384478 3.716341 9.9481443e-39
0.19293632 -0.30377537 3.7197597 1.0408041e-38
0.18210417 -0.30374262 3.7157125 1.1055937e-38
0.10333896 -0.30413511 3.6826851 1.0231232e-38
0.14294942 -0.30536643 3.6870089 8.8381926e-39
0.1836447 -0.30373549 3.7156477 9.0254705e-39
0.19155625 -0.30362284 3.7191982 1.0315844e-38
0.197153 -0.30359614 3.7212517 8.6555936e-39
0.1852743 -0.30342564 3.716728 9.5808149e-39
0.18264644 -0.30335397 3.7156553 1.1610551e-38
0.19483846 -0.30326915 3.7205865 9.855227e-39
0.095207632 -0.30380234 3.6794605 8.6631914e-39
0.18106072 -0.3032375 3.7153513 8.1986035e-39
0.18213527 -0.303298 3.7153337 1.1057379e-38
0.10043628 -0.30368748 3.6815069 7.649394e-39
0.18167002 -0.30317473 3.715378 8.8432569e-39
0.18287252 -0.30321425 3.7157474 8.0127563e-39
0.097641632 -0.30354723 3.6811264 1.032271e-38
0.10588904 -0.30357242 3.6838436 8.5659427e-39
0.18858635 -0.30308211 3.7181396 1.1794939e-38
0.18447776 -0.30285722 3.7164426 1.0225826e-38
0.18812563 -0.30283782 3.7179086 1.0780427e-38
0.10044013 -0.30329123 3.6813078 1.0324149e-38
0.18465355 -0.30278337 3.7164514 9.7637657e-39
0.18624789 -0.30276692 3.7171056 1.3267186e-38
0.19314176 -0.30268729 3.7199323 9.3935258e-39
0.098227993 -0.30322134 3.6808922 1.041598e-38
0.15697552 -0.30438414 3.6928415 6.0769984e-39
0.185105 -0.30274466 3.7164514 1.3177878e-38
0.18407424 -0.30261382 3.7162588 1.004035e-38
0.19409658 -0.30253375 3.7203526 1.1334687e-38
0.19757612 -0.30260301 3.7215047 9.9463436e-39
0.15674525 -0.30423439 3.6928699 8.1063953e-39
0.19354719 -0.30254045 3.719816 8.3800941e-39
0.18717717 -0.30239376 3.7174256 1.0685711e-38
0.18867114 -0.30239642 3.7181077 1.2162277e-38
0.19562988 -0.30240074 3.7207992 1.2344503e-38
0.10082529 -0.30284217 3.6822369 1.0600014e-38
0.19677053 -0.30234471 3.7211132 9.669391e-39
0.18145579 -0.30239189 3.7153106 1.1707435e-38
0.18545048 -0.30233404 3.7168303 1.2623262e-38
0.19743149 -0.30225551 3.7214265 1.2070442e-38
0.19567582 -0.30217925 3.7207737 9.3920824e-39
0.18217041 -0.30220625 3.7154531 8.8410765e-39
0.18945189 -0.3021335 3.7185421 6.5401528e-39
0.18994139 -0.30209073 3.7185993 1.0872982e-38
0.19645904 -0.30201161 3.7210879 8.9332651e-39
0.097084224 -0.30245131 3.6803668 8.6624754e-39
0.18174085 -0.30197448 3.7153275 7.6472248e-39
0.096388951 -0.30245265 3.6797512 8.7532249e-39
0.099597916 -0.30243704 3.6812181 1.0784045e-38
0.18647155 -0.30190727 3.7171547 1.2069721e-38
0.1973069 -0.30189848 3.7212605 1.1791693e-38
0.18051009 -0.30183366 3.7148852 7.2759172e-39
0.19400513 -0.30175468 3.720397 7.5550264e-39
0.096664108 -0.30229393 3.6798151 1.133506e-38
0.18107432 -0.30170634 3.7151616 6.7256385e-39
0.1872638 -0.30170077 3.7174749 8.1996755e-39
0.18839262 -0.30172175 3.7179976 8.2922397e-39
0.17939113 -0.30166444 3.7143569 1.0694004e-38
0.18014775 -0.30166048 3.7145288 6.3554042e-39
0.18176655 -0.30153987 3.715771 7.2780892e-39
0.19021378 -0.30161116 3.7188015 7.4635538e-39
0.11007664 -0.30206779 3.6853664 8.1989343e-39
0.17893346 -0.30158696 3.7142766 1.1800707e-38
0.1805381 -0.3015466 3.7149544 1.2631192e-38
0.1839778 -0.30149832 3.7161644 5.9877007e-39
0.18455175 -0.30154848 3.7161078 5.986972e-39
0.19374225 -0.30142838 3.7200537 1.2625426e-38
0.095898062 -0.30188486 3.6795096 1.0507453e-38
0.17874511 -0.30136046 3.7141249 8.0142109e-39
0.17909709 -0.30132386 3.7141545 8.9361616e-39
0.1857646 -0.30140829 3.716939 9.9524771e-39
0.096489355 -0.30182168 3.679672 9.6776923e-39
0.098964915 -0.3017239 3.6813943 7.1873341e-39
0.098258071 -0.30170304 3.6805809 1.0141557e-38
0.18562524 -0.30114621 3.7166986 1.2901657e-38
0.18621787 -0.30117682 3.7168977 1.2716537e-38
0.098782293 -0.30156106 3.6812685 1.0231937e-38
0.10549717 -0.30163795 3.6833043 5.0668178e-39
0.10898619 -0.3014777 3.6858873 9.3996579e-39
0.1785261 -0.30110115 3.7140319 1.0138672e-38
0.10070625 -0.30152091 3.6816225 6.2650022e-39
0.18915705 -0.30094779 3.718163 8.6588544e-39
0.19079334 -0.30095109 3.7186399 9.9492317e-39
0.18749884 -0.30091593 3.7173505 8.56557e-39
0.19338582 -0.30074525 3.7197504 1.022545e-38
0.095749691 -0.30109337 3.679657 1.1057747e-38
0.17842744 -0.30062792 3.7139821 1.0875877e-38
0.18853785 -0.30046359 3.7178652 1.151655e-38
0.19351402 -0.30051014 3.7198186 1.2439227e-38
0.18486559 -0.30049467 3.7163091 1.1887142e-38
0.1054638 -0.30087313 3.6833665 1.0412732e-38
0.17430514 -0.3020218 3.7012267 6.2559933e-39
0.18539214 -0.30037829 3.7165005 1.1977887e-38
0.18614721 -0.30039188 3.71683 1.1332158e-38
0.18751039 -0.30041751 3.7173617 1.2347752e-38
0.17959508 -0.30038038 3.7141244 1.0780437e-38
0.18398991 -0.30024713 3.715935 1.2439953e-38
0.18686925 -0.30017725 3.717103 1.1148495e-38
0.19166896 -0.30018461 3.7190762 9.1169431e-39
0.19534604 -0.30017737 3.7206035 8.5670091e-39
0.12400797 -0.30216834 3.6799977 7.7332674e-39
0.17837587 -0.30004174 3.7137849 1.0967348e-38
0.18414369 -0.30005127 3.7158494 9.5804618e-39
0.18600251 -0.30003408 3.7167659 1.1056295e-38
0.1791455 -0.30001947 3.7140329 1.170131e-38
0.17622009 -0.30161259 3.7020094 6.2585198e-39
0.19061361 -0.29990634 3.7186284 1.1979331e-38
0.18633987 -0.29985207 3.716821 7.8280204e-39
0.095440909 -0.30030966 3.6794596 7.8319832e-39
0.17791665 -0.30145189 3.7025821 6.1677577e-39
0.10442068 -0.30021667 3.6829097 7.6479479e-39
0.17324682 -0.30137405 3.7007511 6.7194938e-39
0.17860104 -0.29966635 3.7138419 7.7365352e-39
0.17900936 -0.29971421 3.7138474 1.2161207e-38
0.18177031 -0.29965824 3.7150435 9.0280055e-39
0.17814814 -0.29954672 3.7137415 7.2770074e-39
0.10634562 -0.29997319 3.6840177 9.3089084e-39
0.17848819 -0.29943758 3.7137871 1.0322696e-38
0.18072726 -0.29935238 3.7145948 1.0780437e-38
0.18868506 -0.29932788 3.7178192 8.1975203e-39
0.19538417 -0.29928699 3.7206357 1.1057739e-38
0.18538016 -0.2993058 3.7164414 1.17013e-38
0.18839984 -0.29925156 3.7177303 1.1424721e-38
0.19727111 -0.29919618 3.721113 9.3953335e-39
0.18158405 -0.29913718 3.7149222 7.9220139e-39
0.18609177 -0.29914078 3.7165813 8.6581426e-39
0.18702425 -0.29912812 3.7170899 1.0136148e-38
0.19175652 -0.2990804 3.7190511 1.1978249e-38
0.18052597 -0.2990517 3.7145293 1.1886422e-38
0.18807037 -0.29901773 3.717613 7.3691988e-39
0.18203726 -0.29895654 3.7150922 1.1793867e-38
0.19533016 -0.29887128 3.7205698 1.0227618e-38
0.18223935 -0.29892483 3.7151785 1.1886062e-38
0.19216843 -0.29871005 3.7192781 1.225412e-38
0.19336009 -0.29872707 3.7198393 9.0261894e-39
0.1788374 -0.29877719 3.7137337 1.0778987e-38
0.17430188 -0.30037549 3.7010584 7.2672642e-39
0.18018734 -0.29865426 3.7143292 1.1423642e-38
0.18085501 -0.29864088 3.7146883 9.2091387e-39
0.19477133 -0.29858363 3.720407 8.1064079e-39
0.17351909 -0.30037081 3.7008126 7.5438482e-39
0.17873935 -0.29857302 3.7138231 8.0123976e-39
0.18047905 -0.29859862 3.7144115 8.8407135e-39
0.18411037 -0.29858699 3.7159126 9.4875431e-39
0.19525491 -0.29847467 3.720438 1.1794583e-38
0.18741067 -0.29846922 3.7171981 8.6588558e-39
0.17752302 -0.30023929 3.7022524 6.9928381e-39
0.18824901 -0.29838705 3.7176814 7.0933406e-39
0.18929066 -0.29837486 3.7179835 8.2907936e-39
0.17882837 -0.29837054 3.7137651 9.6719189e-39
0.19188052 -0.2982814 3.7190461 9.4886165e-39
0.18034618 -0.29824519 3.7140677 1.1054493e-38
0.19474165 -0.298217 3.7202883 1.2716174e-38
0.17321785 -0.29998964 3.7007082 8.0051921e-39
0.17438737 -0.30002221 3.7011344 9.2015745e-39
0.18188147 -0.29815215 3.7151244 1.1700951e-38
0.18100061 -0.29806766 3.7147284 6.7220133e-39
0.1821748 -0.29808995 3.7152054 9.3027861e-39
0.12334497 -0.30024466 3.679846 5.6131364e-39
0.1736788 -0.29979095 3.7011452 9.110095e-39
0.17472106 -0.2998338 3.7013745 7.1757916e-39
0.17863189 -0.29785767 3.713886 4.512558e-39
0.17851245 -0.29731792 3.7170589 8.1982224e-39
0.18547538 -0.2980617 3.7163911 1.1239603e-38
0.18974771 -0.29799685 3.7182155 1.3360463e-38
0.19416499 -0.29799828 3.7198682 9.4868088e-39
0.120454 -0.29885405 3.6850784 1.0034211e-38
0.17695507 -0.29973957 3.7023399 6.6276597e-39
0.17403494 -0.29967424 3.7008965 1.1968883e-38
0.10126247 -0.29828617 3.6817393 6.633426e-39
0.12310786 -0.29995272 3.6797676 4.3285213e-39
0.17278552 -0.30236045 3.6846616 9.7551112e-39
0.17984688 -0.29775235 3.7144735 4.9717383e-39
0.18568009 -0.29781401 3.7164237 9.9481471e-39
0.19574507 -0.29773676 3.7208211 1.1608385e-38
0.09668646 -0.29819012 3.6799827 6.6345078e-39
0.1805108 -0.29758734 3.7148402 1.0507453e-38
0.10684381 -0.29795334 3.6845715 5.3448424e-39
0.18080831 -0.29750237 3.7147632 9.4936626e-39
0.19499062 -0.29751813 3.7200723 5.9880552e-39
0.10765442 -0.29785278 3.6847992 8.2007377e-39
0.10891057 -0.29781803 3.6853108 7.834486e-39
0.18150701 -0.29742029 3.7150326 6.3575608e-39
0.19540502 -0.29740128 3.7206247 5.8944191e-39
0.14268395 -0.30299813 3.667464 5.9830007e-39
0.17185457 -0.30298764 3.6781116 9.2069877e-39
0.17312384 -0.29926389 3.7005396 8.7402348e-39
0.17374592 -0.29921708 3.7011487 8.8320731e-39
0.17897643 -0.29730612 3.7141492 8.201472e-39
0.18169874 -0.29733461 3.7152483 1.0043583e-38
0.18509988 -0.29657453 3.7199857 9.9553596e-39
0.17948958 -0.29734853 3.7144084 9.0315942e-39
0.18118696 -0.29733619 3.7147787 1.1243933e-38
0.18446733 -0.29731989 3.7160254 1.124286e-38
0.19206315 -0.2972182 3.7191825 4.5143615e-39
0.097401001 -0.29774576 3.6801634 5.3444893e-39
0.099075921 -0.29770049 3.6809285 1.1059182e-38
0.17728882 -0.30105934 3.690259 8.1892275e-39
0.17439602 -0.29911098 3.7010655 9.2004927e-39
0.1747397 -0.29914686 3.7012665 8.6494811e-39
0.17927265 -0.29710761 3.7142975 4.1441426e-39
0.18023024 -0.29725328 3.7141664 5.4338024e-39
0.18626833 -0.29715511 3.7169459 6.1731836e-39
0.18917188 -0.29715049 3.7181087 3.4083726e-39
0.19332501 -0.29717153 3.7196279 8.8508029e-39
0.19512565 -0.29715347 3.7202888 1.2349203e-38
0.09584938 -0.29771331 3.6793978 6.1717276e-39
0.096393466 -0.29773363 3.679395 1.0322334e-38
0.17326176 -0.30215162 3.6826398 1.021826e-38
0.17596479 -0.29905146 3.701756 7.1779538e-39
0.18850525 -0.29706994 3.7179601 8.3865905e-39
0.19083105 -0.29555064 3.7285519 5.4345227e-39
0.1029739 -0.29749858 3.6827841 1.0234465e-38
0.1810766 -0.29706737 3.7146726 1.179206e-38
0.1858817 -0.29698509 3.7166514 1.0138322e-38
0.1942482 -0.29692045 3.7201126 8.1996938e-39
0.17345117 -0.29889941 3.7006109 1.1599381e-38
0.18407689 -0.29689687 3.7158496 9.0272866e-39
0.18723071 -0.2968533 3.7173109 1.0876961e-38
0.10281543 -0.29728693 3.6826696 9.4025459e-39
0.11104897 -0.29726666 3.6858599 4.9746166e-39
0.17239732 -0.29880172 3.7001245 7.1772251e-39
0.18441986 -0.29683989 3.7159781 1.1152472e-38
0.18493707 -0.29691103 3.7162247 6.7245553e-39
0.17364651 -0.29872069 3.7006352 8.0955885e-39
0.1799932 -0.29670325 3.7144554 9.5862225e-39
0.18160941 -0.29670802 3.7149353 6.5376277e-39
0.18276048 -0.29670891 3.7152832 1.3083878e-38
0.18545118 -0.29662889 3.7164345 1.1429058e-38
0.18745811 -0.29668388 3.7173026 1.2623985e-38
0.19505303 -0.29667923 3.7203295 1.0967714e-38
0.18309593 -0.29668668 3.7154727 1.0682475e-38
0.1869944 -0.29663047 3.7170658 8.7543095e-39
0.19676065 -0.29662877 3.7209108 8.1092862e-39
0.1096874 -0.29709023 3.6850262 8.9390342e-39
0.096542656 -0.2970435 3.6798298 8.0185269e-39
0.17722604 -0.29830578 3.7022138 1.0955087e-38
0.18032749 -0.29638833 3.7143459 9.954289e-39
0.18084951 -0.29629561 3.7147744 1.133072e-38
0.19488266 -0.2963388 3.7199688 1.0416698e-38
0.10317646 -0.29680312 3.6822209 7.6465046e-39
0.12439535 -0.29866758 3.6799569 4.6958619e-39
0.17764698 -0.29824394 3.7023349 6.440379e-39
0.18127288 -0.2962929 3.714576 1.1700946e-38
0.19656287 -0.29615337 3.7207353 8.476638e-39
0.17718808 -0.29809391 3.7022641 6.1684794e-39
0.18078119 -0.29615197 3.7143047 8.8425212e-39
0.12403068 -0.29845741 3.6799669 7.9165922e-39
0.18164831 -0.29606134 3.7147517 6.5412234e-39
0.17793192 -0.29801628 3.7023435 5.8915282e-39
0.17973396 -0.29598585 3.713933 7.0972979e-39
0.18560965 -0.29601151 3.7161679 8.7521291e-39
0.18923369 -0.29598299 3.7176945 8.387322e-39
0.19812667 -0.29601422 3.7210054 8.8526148e-39
0.096246414 -0.29648718 3.6792469 7.555032e-39
0.12356938 -0.29823855 3.679662 4.6004236e-39
0.12439504 -0.29821795 3.6799569 8.1946141e-39
0.17338809 -0.30111751 3.6829023 1.1329651e-38
0.17326699 -0.29783067 3.7004321 7.9144342e-39
0.17798379 -0.29780471 3.7024827 6.9035263e-39
0.1866547 -0.29581395 3.7164943 1.3550269e-38
0.17460036 -0.29768929 3.7016182 8.4686954e-39
0.12344833 -0.29811832 3.6794543 4.3274423e-39
0.1763351 -0.2975598 3.701968 7.5474608e-39
0.17345697 -0.30077258 3.6831715 8.6509301e-39
0.19278041 -0.29552731 3.7187304 1.1708161e-38
0.097330466 -0.29603216 3.6797161 9.8591969e-39
0.17348282 -0.29751766 3.7004237 1.0861453e-38
0.18848722 -0.29554877 3.7167301 1.0505658e-38
0.097267278 -0.29579827 3.6798623 6.724907e-39
0.1736118 -0.2971116 3.7005181 6.2610324e-39
0.10602714 -0.29517207 3.684036 7.0061672e-39
0.10167994 -0.29525051 3.6815536 6.9114605e-39
0.098157279 -0.29522917 3.6800175 1.0785475e-38
0.10753523 -0.29511774 3.6836481 5.2537314e-39
0.10559535 -0.29493245 3.6835308 1.0415239e-38
0.19940028 -0.29471168 3.7201562 9.8610018e-39
0.11122318 -0.29503894 3.6846731 8.3865667e-39
0.17402323 -0.29986706 3.6840606 1.0863631e-38
0.10669886 -0.29494864 3.6830389 9.6773125e-39
0.17991461 -0.29438087 3.712249 6.7270706e-39
0.18147087 -0.29436651 3.7127435 8.9372434e-39
0.18175317 -0.29434991 3.7129076 9.1227094e-39
0.1909039 -0.29431581 3.7164657 1.1059176e-38
0.10513208 -0.29453021 3.6825488 7.924525e-39
0.1878617 -0.29420778 3.7154274 1.087334e-38
0.18849456 -0.29424652 3.7156024 1.0780783e-38
0.19138642 -0.29417253 3.7166381 9.2145449e-39
0.19923133 -0.29409108 3.7198319 2.3031237e-39
0.10551971 -0.29442438 3.682076 1.0968773e-38
0.18645029 -0.29403153 3.7147281 8.845761e-39
0.18909405 -0.2940225 3.7157009 7.9259683e-39
0.19900288 -0.29403418 3.7196205 1.2086715e-38
0.11309426 -0.29425186 3.6850286 4.7005576e-39
0.1950386 -0.29382446 3.7180498 8.4777002e-39
0.19612421 -0.29381078 3.7184422 8.5894075e-39
0.19855566 -0.29382882 3.7195201 4.0617491e-39
0.19553684 -0.29364759 3.7182271 3.7757216e-39
0.19972476 -0.29370871 3.719846 2.1234016e-39
0.11286808 -0.29398182 3.6849484 9.2152568e-39
0.19946575 -0.29366666 3.7196295 2.6741007e-39
0.12190086 -0.29575783 3.6788776 1.1878849e-38
0.17371562 -0.29897529 3.6830118 8.1009975e-39
0.10986616 -0.29368904 3.683543 5.8998085e-39
0.19591773 -0.29326367 3.7183733 1.2361856e-38
0.10617742 -0.29372427 3.6814137 6.7299335e-39
0.10546716 -0.2934376 3.681813 8.8493469e-39
0.10954069 -0.29341075 3.6827071 4.791663e-39
0.19768782 -0.29282025 3.719049 1.7554094e-39
0.10941482 -0.29322919 3.6831706 6.8192452e-39
0.19745366 -0.29260406 3.7191057 1.5034463e-38
0.13837825 -0.29818118 3.6689293 4.3249129e-39
0.19952594 -0.29180002 3.7196898 1.3001477e-38
0.18415132 -0.29168165 3.7135413 6.0831263e-39
0.20009308 -0.29158792 3.7199121 2.3985437e-39
0.19870727 -0.29148367 3.7194667 1.7586422e-39
0.1825037 -0.29171821 3.7120452 9.6830887e-39
0.19624616 -0.29120031 3.7184801 1.2932962e-39
0.16480847 -0.29884258 3.672689 9.2944946e-39
0.122618 -0.29357612 3.67782 8.0113004e-39
0.17468999 -0.29310733 3.6996911 1.1694099e-38
0.17565206 -0.29309151 3.7000012 6.9045955e-39
0.17580977 -0.29307258 3.700238 1.0403711e-38
0.17971879 -0.2930423 3.7017312 7.5514012e-39
0.12343889 -0.29346663 3.6782091 7.4602874e-39
0.17497335 -0.29297122 3.699702 7.7343576e-39
0.17716856 -0.29295745 3.7006903 5.2511964e-39
0.17351075 -0.29284516 3.6991456 9.7615852e-39
0.17459251 -0.29291952 3.6994786 7.6425235e-39
0.17550743 -0.29281977 3.6999722 8.6570383e-39
0.17574008 -0.29278588 3.700218 5.9869594e-39
0.17689864 -0.29274151 3.700588 9.8541438e-39
0.17947888 -0.29269201 3.7015483 6.8145635e-39
0.17656611 -0.2925289 3.7003317 9.6701141e-39
0.17923038 -0.29245088 3.7015345 9.9459793e-39
0.12267278 -0.29275361 3.6779647 5.7128935e-39
0.11869045 -0.29225549 3.677897 6.2754027e-39
0.11172453 -0.2923021 3.6744454 3.6874637e-39
0.11178054 -0.29252422 3.6732159 9.0340801e-39
0.17507461 -0.29531163 3.683017 1.2983402e-38
0.14757875 -0.29292235 3.6807575 9.8512711e-39
0.11598569 -0.29267898 3.6689472 4.1531165e-39
0.11289217 -0.29287499 3.666028 8.8565426e-39
0.12037399 -0.35802692 3.6930897 9.5772066e-39
0.12164851 -0.35811999 3.6937976 9.7608762e-39
0.14600223 -0.35431573 3.692405 4.6915389e-39
0.10990199 -0.35779294 3.688447 7.6450556e-39
0.12337529 -0.35775435 3.6943414 6.2632058e-39
0.12790558 -0.35788757 3.6961112 9.5804534e-39
0.12862661 -0.35807893 3.6971178 6.2635701e-39
0.12386625 -0.35769618 3.6951463 1.1426164e-38
0.1500802 -0.35380924 3.6939614 1.2520984e-38
0.15820013 -0.35732359 3.7081606 1.262219e-38
0.16601983 -0.35753569 3.7120948 9.4846466e-39
0.11695349 -0.35732824 3.6915238 7.2762703e-39
0.12302039 -0.35736349 3.6941133 7.8283693e-39
0.14793094 -0.35394701 3.694005 6.719498e-39
0.16179313 -0.35732397 3.7101271 8.5637735e-39
0.10948196 -0.35720915 3.6884522 1.2161207e-38
0.15828893 -0.35725257 3.70906 1.0037825e-38
0.1593733 -0.35715437 3.7089934 9.8545109e-39
0.16393499 -0.35714892 3.7109754 8.4730142e-39
0.12929873 -0.35715732 3.6972747 9.8537949e-39
0.14376213 -0.35358471 3.6918411 7.8211512e-39
0.16451795 -0.35685116 3.7110744 1.2804764e-38
0.1657639 -0.35674605 3.7109499 1.3356864e-38
0.17432627 -0.35697037 3.7153776 8.5659301e-39
0.10942674 -0.35710421 3.6888926 7.2759158e-39
0.12032937 -0.35671541 3.6929629 1.1698425e-38
0.12070225 -0.35686949 3.6937311 1.1606591e-38
0.12279686 -0.35674006 3.6941266 1.1883179e-38
0.089309476 -0.37923437 3.7528985 5.9833707e-39
0.14543487 -0.35346645 3.6933129 1.0400479e-38
0.14994352 -0.35328153 3.6946857 7.4523757e-39
0.15599044 -0.35310459 3.696579 4.3238395e-39
0.16610858 -0.35660848 3.7117317 1.0590637e-38
0.10208858 -0.35659105 3.6855295 7.2769962e-39
0.12333377 -0.35675925 3.6950588 7.0011225e-39
0.1590821 -0.35660103 3.709305 1.2346681e-38
0.094589539 -0.35643396 3.6825182 6.9092983e-39
0.097482748 -0.35628441 3.6832623 5.5274428e-39
0.097631171 -0.35640138 3.6837451 5.7085957e-39
0.099278785 -0.35617322 3.6836441 6.0784544e-39
0.10113725 -0.35641277 3.6852169 8.0127676e-39
0.11014177 -0.35654593 3.6893561 9.0247433e-39
0.12639788 -0.3565211 3.6960435 6.3543126e-39
0.15171848 -0.35289556 3.6951318 1.2979796e-38
0.11274344 -0.3560836 3.6894546 8.1957001e-39
0.1161046 -0.35626641 3.6915746 8.3804571e-39
0.16891919 -0.35596472 3.7125497 1.2345592e-38
0.16979064 -0.35606304 3.7133083 9.1162228e-39
0.16424799 -0.35601103 3.7111216 9.4839263e-39
0.099680454 -0.35581908 3.6842942 1.23474e-38
0.11479287 -0.35578904 3.6904268 1.1240332e-38
0.12538937 -0.35587534 3.6952057 1.2161569e-38
0.16594157 -0.35580844 3.7117817 9.8527117e-39
0.16699126 -0.35578167 3.7121942 8.6592244e-39
0.16875979 -0.35564813 3.7125082 7.1848047e-39
0.17858033 -0.35573402 3.7168231 1.2528906e-38
0.16453063 -0.35563263 3.7112734 8.5641477e-39
0.18640819 -0.35568738 3.7203941 4.6969619e-39
0.13830566 -0.35181683 3.6884255 1.1326041e-38
0.1650781 -0.35552883 3.7117133 1.197826e-38
0.17061748 -0.35555127 3.7140257 7.4610357e-39
0.17713203 -0.35535869 3.7162585 1.133613e-38
0.099972419 -0.35535631 3.6842468 8.936163e-39
0.16573165 -0.3553642 3.7118478 6.7234707e-39
0.11208233 -0.35514757 3.6895328 6.1710144e-39
0.13887225 -0.35115221 3.6880217 3.6809883e-39
0.13935637 -0.3510893 3.6880605 1.0123883e-38
0.16639991 -0.35493731 3.7118576 1.2163009e-38
0.10008528 -0.35484481 3.684526 8.1056792e-39
0.1047307 -0.35463241 3.6865196 8.4712178e-39
0.10679936 -0.35467219 3.6872644 5.1586589e-39
0.11175481 -0.35469806 3.6896317 1.1884974e-38
0.12567501 -0.35484022 3.6956553 9.1205472e-39
0.033042774 -0.43123624 3.9083242 4.5089483e-39
0.1320181 -0.36139694 3.7199123 4.5096713e-39
0.14813966 -0.35096738 3.6923718 4.7855394e-39
0.15905172 -0.3476024 3.6858654 5.4298284e-39
0.15729722 -0.3507497 3.6955137 4.7844519e-39
0.16973449 -0.35462147 3.7134883 1.2807659e-38
0.10386916 -0.35481039 3.6869931 8.8410779e-39
0.17040414 -0.3544412 3.7134771 1.2531434e-38
0.13644542 -0.36110866 3.7220039 7.2719445e-39
0.15608275 -0.3508665 3.6963246 8.1928204e-39
0.16641872 -0.35422054 3.7117684 9.2087842e-39
0.12273367 -0.35419747 3.6939313 9.0247433e-39
0.124338 -0.35426298 3.6950221 6.2603121e-39
0.16080032 -0.35085794 3.6988602 7.5478069e-39
0.16158472 -0.35113278 3.6999846 9.1136921e-39
0.16418587 -0.35417888 3.7112203 1.1328568e-38
0.16528808 -0.35409889 3.7115443 9.759444e-39
0.17790362 -0.35390157 3.7165043 9.6701309e-39
0.16945623 -0.35369846 3.7129056 1.2438514e-38
0.13680522 -0.35073164 3.6898386 3.6802624e-39
0.16717607 -0.35353801 3.7120655 9.6701225e-39
0.13639835 -0.3504982 3.6893418 7.3616108e-39
0.12414922 -0.35343111 3.6947215 1.1791697e-38
0.17780237 -0.35311365 3.7161112 1.2622906e-38
0.18253674 -0.35320017 3.7184494 8.7503424e-39
0.10517989 -0.35313043 3.6865509 8.1049534e-39
0.11203919 -0.35325447 3.6898017 7.2784353e-39
0.11373371 -0.35307851 3.6897368 1.1239978e-38
0.09044487 -0.36639932 3.7339277 8.9275072e-39
0.11958382 -0.35304847 3.6925373 1.2806576e-38
0.12473881 -0.35299122 3.6946807 9.3938887e-39
0.18481556 -0.3528426 3.7193713 1.2161565e-38
0.11391416 -0.35284725 3.6902573 7.0929679e-39
0.12248204 -0.35284132 3.6939771 1.2251953e-38
0.12527469 -0.35275611 3.6947935 1.243851e-38
0.18100084 -0.35265613 3.7177031 8.2886342e-39
0.1202531 -0.35267815 3.6927075 9.3938887e-39
0.17067891 -0.35261768 3.7136536 9.3031448e-39
0.10637707 -0.35236832 3.6870441 7.5517698e-39
0.18070467 -0.35217848 3.7175496 1.1794223e-38
0.1966877 -0.35221195 3.7240663 8.4730184e-39
0.11970828 -0.35213396 3.6924305 1.1790978e-38
0.12579186 -0.35235569 3.6957679 1.23474e-38
0.16858986 -0.35200933 3.7123966 9.6708427e-39
0.12389982 -0.35196164 3.6942246 7.1833502e-39
0.12708066 -0.35210979 3.6961763 8.1967903e-39
0.11269238 -0.35166317 3.6890349 7.7372597e-39
0.11362746 -0.35176253 3.6898503 8.2003972e-39
0.11716625 -0.35177094 3.6914749 6.3557601e-39
0.12101824 -0.35173589 3.6926844 6.3550329e-39
0.1208667 -0.35179782 3.6929512 5.4327178e-39
0.16405004 -0.35171947 3.7108996 1.2255566e-38
0.16956501 -0.35180452 3.7133982 9.3024134e-39
0.17095251 -0.3518016 3.7139988 5.9855427e-39
0.17684278 -0.35167322 3.7160044 1.2439956e-38
0.18299785 -0.35164452 3.7183938 1.2437076e-38
0.10905726 -0.35163927 3.6880033 1.1330724e-38
0.11721408 -0.35179132 3.6919639 5.8032968e-39
0.16454585 -0.35158855 3.7111456 7.1862467e-39
0.17422566 -0.3515366 3.714968 9.0247405e-39
0.17918326 -0.3515375 3.717087 8.0131263e-39
0.11700924 -0.35151488 3.6914506 1.2533588e-38
0.12018669 -0.35148022 3.6925275 1.1427603e-38
0.18403924 -0.35127708 3.7188025 5.0657416e-39
0.19408229 -0.35141557 3.7234011 7.7365422e-39
0.12284992 -0.35137352 3.6940415 7.2755542e-39
0.16423334 -0.351201 3.7107437 6.7238238e-39
0.17448905 -0.35132295 3.7155547 1.1242493e-38
0.18715322 -0.35121781 3.7203236 3.9611863e-39
0.16165295 -0.35105276 3.7096705 9.3020658e-39
0.095887475 -0.35104415 3.6827424 1.1977527e-38
0.11757632 -0.35099378 3.6917136 8.5670175e-39
0.18699132 -0.3505474 3.7195442 1.1149221e-38
0.095392093 -0.35070023 3.6825869 5.8947792e-39
0.097392939 -0.3506642 3.6837845 5.7075125e-39
0.095991082 -0.35007074 3.6816697 1.3453022e-38
0.10176605 -0.35030651 3.6850121 5.5245519e-39
0.17193535 -0.35018206 3.7138493 9.9485156e-39
0.18496926 -0.35007626 3.719162 1.1977537e-38
0.086611539 -0.35255319 3.6873918 1.3084235e-38
0.14086317 -0.3477051 3.6921837 7.9169622e-39
0.15071195 -0.34756136 3.6956172 7.7304073e-39
0.16560598 -0.35006455 3.7115178 1.2805493e-38
0.1021345 -0.34972277 3.6842318 1.2529618e-38
0.14019595 -0.34746569 3.6914926 5.4291067e-39
0.15329055 -0.34743056 3.6969144 9.021872e-39
0.16032943 -0.34973434 3.7091067 8.2889789e-39
0.14291088 -0.34728804 3.6932003 9.9452786e-39
0.16652611 -0.34950641 3.7116196 9.3928097e-39
0.16748066 -0.34952053 3.7120595 6.8138502e-39
0.14064389 -0.34704623 3.6919422 9.8498278e-39
0.15593499 -0.34360975 3.6853139 1.0314417e-38
0.14755194 -0.352097 3.7142189 1.2061444e-38
0.14568518 -0.35463876 3.7233984 9.945636e-39
0.15577647 -0.34688556 3.6976376 1.2060725e-38
0.16018073 -0.34930369 3.7088315 5.7092935e-39
0.16490492 -0.34912726 3.7107499 9.3928209e-39
0.17913684 -0.34918591 3.7168431 1.0780077e-38
0.16231021 -0.34900653 3.7097633 7.9191244e-39
0.10214885 -0.34881511 3.6844294 1.2346673e-38
0.15821338 -0.34650403 3.6989901 5.6127763e-39
0.10389016 -0.34895211 3.6863244 9.3013316e-39
0.16194195 -0.34874085 3.7097855 1.2532516e-38
0.16779387 -0.3486664 3.7121189 1.0318381e-38
0.1610126 -0.34856877 3.7094104 1.1608396e-38
0.14009726 -0.34603354 3.6913471 1.0677062e-38
0.11004218 -0.34832698 3.6883056 5.803308e-39
0.10466333 -0.34803137 3.6857524 1.1514392e-38
0.12209146 -0.34810507 3.6933823 1.2345595e-38
0.19204603 -0.34796652 3.7219789 8.6613796e-39
0.097469762 -0.34796336 3.6831157 1.3542696e-38
0.10220639 -0.34797558 3.6850195 1.0503123e-38
0.10241952 -0.34800273 3.6852067 5.8036682e-39
0.11719563 -0.34802398 3.6917264 7.9230802e-39
0.11791723 -0.34802085 3.69156 1.1976441e-38
0.16102126 -0.34786585 3.7093666 9.392451e-39
0.16336571 -0.34786656 3.7101388 1.0222936e-38
0.18602581 -0.3477453 3.7196543 1.0782242e-38
0.19308779 -0.3476553 3.7220342 1.2439598e-38
0.10216393 -0.34776628 3.6846325 8.2889831e-39
0.11016353 -0.34789193 3.6888657 1.1147409e-38
0.13909267 -0.34552085 3.691294 8.0977395e-39
0.18125875 -0.3476668 3.7177572 8.841445e-39
0.18342364 -0.34759673 3.7183821 8.5652169e-39
0.044201173 -0.36851388 3.7616992 9.4882452e-39
0.12948772 -0.34769958 3.6966181 5.6189084e-39
0.19294514 -0.34732947 3.7220421 9.5790129e-39
0.19647342 -0.3474797 3.7237709 1.3359751e-38
0.18064398 -0.34726632 3.7172289 1.1978256e-38
0.1022057 -0.34729409 3.6850095 7.9205677e-39
0.10550168 -0.34720138 3.6859796 4.9728131e-39
0.17182048 -0.35018924 3.7138097 8.1060436e-39
0.16715886 -0.34721929 3.7119315 9.2098548e-39
0.19511923 -0.34714663 3.7233384 8.8410891e-39
0.19570851 -0.34709936 3.7235253 1.1976821e-38
0.10120813 -0.34707835 3.6844745 5.1575729e-39
0.11058046 -0.34715563 3.6885972 4.6051208e-39
0.11591133 -0.34715334 3.6911302 4.8817007e-39
0.1242117 -0.34721303 3.6946168 6.7230979e-39
0.16746286 -0.3470639 3.7120328 6.9971709e-39
0.17119013 -0.34699923 3.713609 8.657767e-39
0.17319594 -0.3469086 3.7139449 9.1191151e-39
0.17377117 -0.34702694 3.7146561 9.0265523e-39
0.18585843 -0.34716439 3.7203343 1.0875154e-38
0.18648271 -0.34706241 3.7202532 6.07846e-39
0.09443368 -0.34695625 3.682467 1.1609835e-38
0.099385321 -0.34675211 3.6838112 7.4613874e-39
0.17989194 -0.34666696 3.717015 1.1611637e-38
0.15753125 -0.34433597 3.6985857 1.1690501e-38
0.1728299 -0.34646437 3.7140772 1.2348119e-38
0.18442054 -0.34645295 3.7188404 1.1979343e-38
0.15429492 -0.34381998 3.6958725 4.5103944e-39
0.16839235 -0.34631589 3.7123182 6.2642946e-39
0.14027703 -0.34375152 3.6904666 7.0832316e-39
0.14200549 -0.34367326 3.6912615 1.2980518e-38
0.14447884 -0.34372857 3.6922874 4.9677698e-39
0.16872057 -0.34595102 3.7123516 1.1611275e-38
0.14278302 -0.34338105 3.6910534 1.1691222e-38
0.18385041 -0.34579912 3.7185547 9.8599185e-39
0.11893855 -0.34571019 3.6915393 9.4860886e-39
0.13928208 -0.34357429 3.6909344 3.4047615e-39
0.14089301 -0.34346288 3.691118 4.6915459e-39
0.15515828 -0.34343335 3.6970737 5.7028223e-39
0.15652956 -0.34339067 3.6972408 1.3625533e-38
0.18169561 -0.34575668 3.7182875 6.0777355e-39
0.11621419 -0.34574574 3.6914339 7.4613804e-39
0.1421766 -0.3432045 3.6913304 5.8882912e-39
0.11349065 -0.34553596 3.6901665 6.6337876e-39
0.17019002 -0.34539282 3.7130597 7.8287238e-39
0.17618236 -0.34533647 3.7154031 1.2439231e-38
0.096358933 -0.34529015 3.6823361 8.7510501e-39
0.13599411 -0.3436693 3.6920667 1.0493751e-38
0.17115626 -0.34512597 3.7132602 1.234776e-38
0.17361897 -0.34512004 3.7141821 1.2716182e-38
0.099156059 -0.34504244 3.6835163 1.2532148e-38
0.11388197 -0.34515119 3.6898065 1.1794586e-38
0.12816381 -0.3438018 3.689887 8.8381968e-39
0.1400682 -0.34285599 3.6907425 5.795727e-39
0.14111879 -0.34285989 3.6913331 8.2861048e-39
0.096229032 -0.34495664 3.6822784 1.1794582e-38
0.11830168 -0.34504655 3.6921134 1.2069733e-38
0.14256808 -0.34271461 3.6918111 5.8886485e-39
0.11938695 -0.34492189 3.6925278 1.1424355e-38
0.14078961 -0.34251347 3.6909854 5.704253e-39
0.14357652 -0.34244427 3.6918104 5.9793952e-39
0.15666437 -0.34246844 3.6972988 1.1138767e-38
0.1403538 -0.34231162 3.6905236 9.6657869e-39
0.15475433 -0.34236905 3.6967101 9.4839263e-39
0.15626408 -0.34231284 3.6970663 5.6116945e-39
0.15774015 -0.34231535 3.6978917 6.2566996e-39
0.17677194 -0.34444502 3.7156084 1.2347757e-38
0.10824104 -0.34449479 3.6875341 9.3935258e-39
0.11896092 -0.34433571 3.6915088 8.9347182e-39
